# 3D point list with one line of data per point:
#   POINT3D_ID, X, Y, Z, R, G, B, ERROR, TRACK[] as (IMAGE_ID, POINT2D_IDX)
# Number of points: 445, mean track length: 3.028492513446722
157 -0.04995670169591904 -0.5832165479660034 -0.48142415285110474 0 255 0 0.0 7 17 8 16
158 -0.04379299283027649 -0.5982837677001953 -0.5523927807807922 0 255 0 0.0 7 21 8 19
159 -0.06621208041906357 -0.5938588976860046 -0.5004952549934387 0 255 0 0.0 7 22 8 20
160 0.06919120252132416 -1.0149266719818115 -1.066261887550354 0 255 0 0.0 7 23
161 0.1804957091808319 -0.9792695641517639 -0.9910013675689697 0 255 0 0.0 7 24 8 21
162 0.21033641695976257 -0.9862996339797974 -0.983026385307312 0 255 0 0.0 7 25 8 22
163 0.10800421983003616 -1.040420651435852 -1.04872465133667 0 255 0 0.0 7 26 8 23
164 -0.0525178425014019 -0.5794028043746948 -0.4925552010536194 0 255 0 0.0 7 27 8 25
165 -0.03247011452913284 -0.5718823075294495 -0.5317203402519226 0 255 0 0.0 7 28
166 0.27383938431739807 -1.044319987297058 -0.9503209590911865 0 255 0 0.0 7 29 8 26
167 0.0693911612033844 -1.1578978300094604 -1.022681474685669 0 255 0 0.0 7 30
168 -0.03738098964095116 -0.6076691150665283 -0.5485295653343201 0 255 0 0.0 7 31 8 44
169 -0.20128075778484344 -1.1851626634597778 -0.16274091601371765 0 255 0 0.0 7 32 8 102 9 35 10 32 11 31 12 30 13 29 14 28 15 27 16 26 17 24 18 23 19 23 20 23 21 23 22 23 23 23 24 22 25 22 26 22 27 22
170 -0.12558028101921082 -1.160463809967041 -0.27662044763565063 0 255 0 0.0 7 33 8 103 9 36 10 33 11 32 12 31 13 30 14 29 15 28 16 27 17 25 18 24 19 24 20 24 21 24 22 24 23 24 24 23 25 23 26 23 27 23 28 12 29 13 30 9
171 -0.24765194952487946 -1.086207628250122 -0.16348256170749664 0 255 0 0.0 7 34
172 -0.1354052722454071 -1.1620126962661743 -0.273948609828949 0 255 0 0.0 7 35 8 104 9 37 10 34 11 33 12 32 13 31 14 30 15 29 16 28 17 26 18 25 19 25 20 25 21 25 22 25 23 25 24 24 25 24 26 24 27 24 28 13 29 14 30 10
173 -0.17269837856292725 -1.1610682010650635 -0.20850525796413422 0 255 0 0.0 7 36
174 -0.1648828536272049 -1.1754359006881714 -0.23637111485004425 0 255 0 0.0 7 37
175 -0.1881795972585678 -1.1643556356430054 -0.16361932456493378 0 255 0 0.0 7 38
176 0.05336001515388489 -1.1827385425567627 0.07648889720439911 0 255 0 0.0 7 39
177 0.09600125998258591 -1.1719166040420532 -0.01827600598335266 0 255 0 0.0 7 40
178 -0.12419743090867996 -1.1665464639663696 -0.10076935589313507 0 255 0 0.0 7 41 8 131
179 -0.0557515025138855 -1.1300915479660034 -0.3498026132583618 0 255 0 0.0 7 42
180 -0.02264377474784851 -1.1414295434951782 -0.5246331095695496 0 255 0 0.0 7 43
181 0.2229839265346527 -1.1462607383728027 0.15863558650016785 0 255 0 0.0 7 44 8 134
182 0.17626148462295532 -1.1218534708023071 0.10846036672592163 0 255 0 0.0 7 45 8 135
183 -0.012252850458025932 -1.1697486639022827 -0.5570915937423706 0 255 0 0.0 7 46
184 0.4451596736907959 -1.009961485862732 -0.7857965230941772 0 255 0 0.0 8 24
185 -0.014641141518950462 -0.6145604252815247 -0.7026499509811401 0 255 0 0.0 8 27
186 -0.018771875649690628 -0.6202698945999146 -0.6858005523681641 0 255 0 0.0 8 28
187 0.31465426087379456 -0.8492617011070251 -0.9364120960235596 0 255 0 0.0 8 29
188 0.3680017590522766 -1.194996953010559 -0.9795429706573486 0 255 0 0.0 8 30
189 0.10869468003511429 -0.8888108134269714 -1.0377317667007446 0 255 0 0.0 8 31
190 0.1821555197238922 -0.9140397310256958 -0.9868931770324707 0 255 0 0.0 8 32
191 0.3008747696876526 -0.8475589156150818 -0.9121495485305786 0 255 0 0.0 8 33
192 0.34087610244750977 -0.8672005534172058 -0.962517499923706 0 255 0 0.0 8 34
193 0.7072046995162964 -1.0846588611602783 -0.3955821394920349 0 255 0 0.0 8 35
194 0.16709482669830322 -0.894067108631134 -1.04994535446167 0 255 0 0.0 8 36
195 0.1709056794643402 -0.8964123129844666 -1.0469650030136108 0 255 0 0.0 8 37
196 0.30145692825317383 -0.8119118213653564 -0.8960871696472168 0 255 0 0.0 8 38
197 0.3548368513584137 -1.2440427541732788 -1.0089795589447021 0 255 0 0.0 8 39
198 0.20930638909339905 -1.04514741897583 -0.9945118427276611 0 255 0 0.0 8 40
199 0.27553021907806396 -0.8749526739120483 -0.9241575002670288 0 255 0 0.0 8 41
200 0.3116285800933838 -0.7233686447143555 -0.9260386228561401 0 255 0 0.0 8 42
201 0.2814386785030365 -0.8787169456481934 -0.9258447885513306 0 255 0 0.0 8 43
202 0.6780478358268738 -1.0945481061935425 -0.36916834115982056 0 255 0 0.0 8 45
203 0.35887035727500916 -1.135903239250183 -0.5862742066383362 0 255 0 0.0 8 46
204 0.6095864772796631 -1.1998021602630615 -0.4945928752422333 0 255 0 0.0 8 47 9 0 10 0 11 0 12 0 13 0 14 0 15 0 16 0 17 0 18 0 19 0 20 0 21 0 22 0 23 0 24 0 25 0 26 0 27 0
205 0.6001262664794922 -1.196932315826416 -0.474470317363739 0 255 0 0.0 8 48 9 1 10 1 11 1 12 1 13 1 14 1 15 1 16 1 17 1 18 1 19 1 20 1 21 1 22 1 23 1 24 1 25 1 26 1 27 1 29 0
206 0.7211120128631592 -1.1424689292907715 -0.37695103883743286 0 255 0 0.0 8 49
207 0.6848074793815613 -1.089840054512024 -0.32080960273742676 0 255 0 0.0 8 50
208 0.3563525974750519 -1.2080165147781372 -0.5950528979301453 0 255 0 0.0 8 51
209 0.6217212677001953 -1.137527585029602 -0.4298762381076813 0 255 0 0.0 8 52 9 2 10 2 11 2 12 2 13 2 14 2 15 2 16 2
210 0.36994415521621704 -1.151242733001709 -0.6080893278121948 0 255 0 0.0 8 53
211 0.365005761384964 -1.1457828283309937 -0.572447657585144 0 255 0 0.0 8 54
212 0.5466896891593933 -1.1578994989395142 -0.5047413110733032 0 255 0 0.0 8 55
213 0.6427670121192932 -1.183421015739441 -0.486227422952652 0 255 0 0.0 8 56 9 3 10 3 11 3 12 3
214 0.5400059223175049 -1.1528191566467285 -0.46358218789100647 0 255 0 0.0 8 57 9 4 10 4 11 4 12 4 13 3 14 3 15 3 16 3 17 2 18 2 19 2 20 2 21 2 22 2 23 2 24 2 25 2 26 2 27 2
215 0.5894999504089355 -1.1745685338974 -0.43927663564682007 0 255 0 0.0 8 58 9 5 10 5 11 5 12 5 13 4 14 4 15 4 16 4 17 3 18 3 19 3 20 3 21 3 22 3 23 3 24 3 25 3 26 3 27 3 29 1
216 0.3699090778827667 -1.1472550630569458 -0.5573298931121826 0 255 0 0.0 8 59
217 0.296404629945755 -1.182325839996338 -0.5092296600341797 0 255 0 0.0 8 60
218 0.5166376233100891 -1.2031086683273315 -0.5670902729034424 0 255 0 0.0 8 61 9 6 10 6 11 6 12 6 13 5 14 5
219 0.4303843677043915 -1.165328860282898 -0.5516563653945923 0 255 0 0.0 8 62
220 0.3004390597343445 -1.1517499685287476 -0.5140556693077087 0 255 0 0.0 8 63
221 0.3382253050804138 -1.1705654859542847 -0.5883076190948486 0 255 0 0.0 8 64
222 0.34961479902267456 -1.1837272644042969 -0.5485703349113464 0 255 0 0.0 8 65
223 0.697315514087677 -1.1641749143600464 -0.4350869059562683 0 255 0 0.0 8 66 9 7 10 7 11 7 12 7 13 6 14 6 15 5 16 5 17 4 18 4 19 4 20 4 21 4 22 4 23 4
224 0.37964656949043274 -1.1745764017105103 -0.6657759547233582 0 255 0 0.0 8 67
225 0.55695641040802 -1.1749929189682007 -0.5401312112808228 0 255 0 0.0 8 68 9 8 10 8
226 0.3973035514354706 -1.0600202083587646 -0.6613110303878784 0 255 0 0.0 8 69
227 0.12674129009246826 -1.1692204475402832 -0.08242389559745789 0 255 0 0.0 8 70 9 9 10 9 11 8 12 8 13 7 14 7 15 6
228 0.11751383543014526 -1.1739236116409302 -0.06055891513824463 0 255 0 0.0 8 71 9 10
229 0.15274818241596222 -1.154933214187622 -0.12816041707992554 0 255 0 0.0 8 72 9 11 10 10 11 9 12 9 13 8 14 8 15 7 16 6 17 5 18 5 19 5 20 5 21 5 22 5 23 5 24 4 25 4 26 4 27 4 28 0 29 2 30 0
230 0.22190089523792267 -1.1967295408248901 -0.3388568162918091 0 255 0 0.0 8 73 9 12 10 11 11 10 12 10 13 9 14 9 15 8 16 7 17 6
231 0.1472819298505783 -1.1469844579696655 -0.13597813248634338 0 255 0 0.0 8 74 9 13 10 12 11 11 12 11 13 10 14 10 15 9 16 8 17 7 18 6 19 6 20 6 21 6 22 6 23 6 24 5 25 5 26 5 27 5 28 1 29 3 30 1
232 0.24116821587085724 -1.1839993000030518 -0.30271151661872864 0 255 0 0.0 8 75 9 14 10 13 11 12 12 12 13 11
233 0.15190373361110687 -1.1627264022827148 -0.11571243405342102 0 255 0 0.0 8 76 9 15 10 14 11 13 12 13 13 12 14 11 15 10 16 9 17 8 18 7 19 7 20 7 21 7 22 7 23 7 24 6 25 6 26 6 27 6 28 2 29 4
234 0.20095694065093994 -1.1847209930419922 -0.21774142980575562 0 255 0 0.0 8 77 9 16 10 15 11 14 12 14 13 13 14 12 15 11 16 10 17 9 18 8 19 8 20 8 21 8 22 8 23 8 24 7 25 7 26 7 27 7 28 3 29 5 30 2
235 0.19609856605529785 -1.14340341091156 -0.17532925307750702 0 255 0 0.0 8 78
236 0.19142836332321167 -1.1931531429290771 -0.21706435084342957 0 255 0 0.0 8 79 9 17 10 16 11 15 12 15 13 14 14 13 15 12 16 11 17 10 18 9 19 9 20 9 21 9 22 9 23 9 24 8 25 8 26 8 27 8 28 4 29 6 30 3
237 0.14095711708068848 -1.1637970209121704 -0.08994746208190918 0 255 0 0.0 8 80 9 18 10 17 11 16 12 16 13 15 14 14 15 13 16 12 17 11 18 10 19 10 20 10 21 10 22 10 23 10 24 9 25 9 26 9 27 9 28 5 29 7
238 0.6120223999023438 -1.0667102336883545 -0.18603633344173431 0 255 0 0.0 8 81
239 0.6339303255081177 -1.1227130889892578 -0.1899825781583786 0 255 0 0.0 8 82
240 0.4221966564655304 -1.1546776294708252 -0.11452201008796692 0 255 0 0.0 8 83 9 19 10 18 11 17 12 17 13 16 14 15 15 14 16 13 17 12 18 11 19 11 20 11 21 11 22 11 23 11 24 10 25 10 26 10 27 10 28 6
241 0.15418601036071777 -1.1593154668807983 -0.08515414595603943 0 255 0 0.0 8 84 9 20 10 19 11 18 12 18 13 17 14 16 15 15 16 14 17 13 18 12 19 12 20 12 21 12 22 12 23 12 24 11 25 11 26 11 27 11 28 7 29 8
242 0.16701456904411316 -1.1729717254638672 -0.10532286763191223 0 255 0 0.0 8 85 9 21 10 20 11 19 12 19 13 18 14 17 15 16 16 15 17 14 18 13 19 13 20 13 21 13 22 13 23 13 24 12 25 12 26 12 27 12 28 8 29 9
243 0.2395189106464386 -1.1729204654693604 -0.24386951327323914 0 255 0 0.0 8 86 9 22 10 21 11 20 12 20 13 19 14 18 15 17 16 16 17 15 18 14 19 14 20 14 21 14 22 14 23 14 24 13 25 13 26 13 27 13 28 9 29 10 30 4
244 0.36473265290260315 -1.1628198623657227 -0.42152106761932373 0 255 0 0.0 8 87 9 23 10 22 11 21
245 0.328972727060318 -1.1593092679977417 -0.394392728805542 0 255 0 0.0 8 88 9 24 10 23 11 22 12 21 13 20 14 19 15 18 16 17 17 16 18 15 19 15 20 15 21 15 22 15 23 15 24 14 25 14 26 14 27 14 29 11 30 5 31 0
246 0.25635048747062683 -1.1883823871612549 -0.2746555507183075 0 255 0 0.0 8 89 9 25 10 24 11 23 12 22 13 21 14 20 15 19 16 18 17 17 18 16 19 16 20 16 21 16 22 16 23 16 24 15 25 15 26 15 27 15 29 12 30 6
247 0.22938743233680725 -1.1754323244094849 -0.2707022726535797 0 255 0 0.0 8 90 9 26 10 25 11 24 12 23 13 22 14 21 15 20 16 19 17 18 18 17 19 17 20 17 21 17 22 17 23 17 24 16 25 16 26 16 27 16
248 0.2362220734357834 -1.189273476600647 -0.336493581533432 0 255 0 0.0 8 91 9 27 10 26 11 25 12 24 13 23 14 22 15 21 16 20
249 0.35774266719818115 -1.1691341400146484 -0.39686378836631775 0 255 0 0.0 8 92 9 28
250 0.03899405151605606 -1.169007658958435 -0.7122607231140137 0 255 0 0.0 8 93
251 0.3798377215862274 -1.153683066368103 -0.6227036714553833 0 255 0 0.0 8 94
252 -0.05699317902326584 -1.1580628156661987 -0.44757896661758423 0 255 0 0.0 8 95
253 -0.09333714842796326 -1.1868793964385986 -0.3522506356239319 0 255 0 0.0 8 96 9 29 10 27 11 26 12 25 13 24 14 23 15 22 16 21 17 19 18 18 19 18 20 18 21 18 22 18 23 18 24 17 25 17 26 17 27 17 28 10 30 7
254 -0.09426316618919373 -1.182335615158081 -0.35916900634765625 0 255 0 0.0 8 97 9 30 10 28 11 27 12 26 13 25 14 24 15 23 16 22 17 20 18 19 19 19 20 19 21 19 22 19 23 19 24 18 25 18 26 18 27 18 28 11 30 8
255 0.6828704476356506 -1.1978497505187988 -0.4142126142978668 0 255 0 0.0 8 98 9 31
256 0.5395931005477905 -1.168483018875122 -0.5461825132369995 0 255 0 0.0 8 99 9 32 10 29 11 28 12 27 13 26 14 25 15 24 16 23 17 21 18 20 19 20 20 20 21 20 22 20 23 20 24 19 25 19 26 19 27 19
257 0.3261255919933319 -1.1853909492492676 -0.45885494351387024 0 255 0 0.0 8 100 9 33 10 30 11 29 12 28 13 27 14 26 15 25 16 24 17 22 18 21 19 21 20 21 21 21 22 21 23 21 24 20 25 20 26 20 27 20
258 0.6216117739677429 -1.1579712629318237 -0.49247094988822937 0 255 0 0.0 8 101 9 34 10 31 11 30 12 29 13 28 14 27 15 26 16 25 17 23 18 22 19 22 20 22 21 22 22 22 23 22 24 21 25 21 26 21 27 21
259 0.3558354675769806 -1.183958888053894 -0.8957985639572144 0 255 0 0.0 8 105
260 0.43921878933906555 -0.8681514859199524 -0.7530295848846436 0 255 0 0.0 8 106
261 0.6436761617660522 -1.174562931060791 -0.4833482801914215 0 255 0 0.0 8 107 9 38 10 35 11 34 12 33 13 32 14 31 15 30 16 29 17 27 18 26 19 26 20 26 22 26 23 26 24 25 25 25 26 25 27 25
262 0.3072722852230072 -1.1789891719818115 -0.47601163387298584 0 255 0 0.0 8 108 9 39 10 36 11 35 12 34 13 33 14 32
263 0.32207533717155457 -1.198767900466919 -0.48852959275245667 0 255 0 0.0 8 109 9 40 10 37 11 36 12 35 13 34
264 0.0451507493853569 -1.1738580465316772 -0.7208582758903503 0 255 0 0.0 8 110
265 0.2589838206768036 -0.6557637453079224 -0.8186020851135254 0 255 0 0.0 8 111
266 0.2154073864221573 -1.1683622598648071 -0.023708224296569824 0 255 0 0.0 8 112 9 41 10 38 11 37 12 36 13 35 14 33 15 31 16 30 17 28 18 27 19 27 20 27 21 26 22 27 23 27 24 26 25 26 26 26 27 26 28 14
267 0.23123911023139954 -1.116259217262268 0.15175384283065796 0 255 0 0.0 8 113
268 0.10940802842378616 -1.1522430181503296 0.00961369276046753 0 255 0 0.0 8 114
269 0.07559467107057571 -1.1717296838760376 0.06097891926765442 0 255 0 0.0 8 115 9 42 10 39 11 38
270 0.14947430789470673 -1.1880486011505127 0.011775434017181396 0 255 0 0.0 8 116 9 43 10 40 11 39 12 37 13 36
271 0.23526862263679504 -1.1534831523895264 0.1615217924118042 0 255 0 0.0 8 117
272 -0.34007683396339417 -1.160402774810791 -0.2007208913564682 0 255 0 0.0 8 118
273 -0.2765390872955322 -1.1664899587631226 -0.19208472967147827 0 255 0 0.0 8 119 9 44 10 41 11 40 12 38 13 37 14 34 15 32 16 31 17 29 18 28 19 28 20 28 21 27 22 28 23 28 24 27 25 27 26 27 27 27 28 15
274 0.06132208928465843 -1.163109540939331 0.09034453332424164 0 255 0 0.0 8 120 9 45 10 42 11 41 12 39 13 38 14 35 15 33
275 0.1968623846769333 -1.1675865650177002 -0.033483028411865234 0 255 0 0.0 8 121 9 46
276 0.054461944848299026 -1.1811362504959106 0.11057046055793762 0 255 0 0.0 8 122 9 47 10 43 11 42 12 40 13 39
277 0.2020788937807083 -1.170274019241333 0.0010689795017242432 0 255 0 0.0 8 123 9 48
278 0.14269134402275085 -1.1730624437332153 0.09255929291248322 0 255 0 0.0 8 124 9 49 10 44
279 0.08301933109760284 -1.1594078540802002 0.11725282669067383 0 255 0 0.0 8 125 9 50 10 45 11 43
280 0.5591064691543579 -0.981429398059845 -0.47719013690948486 0 255 0 0.0 8 126 9 51 10 46 11 44
281 0.5758711695671082 -1.177610993385315 -0.4775310754776001 0 255 0 0.0 8 127 9 52 10 47 11 45 12 41 13 40 14 36 15 34 16 32 17 30 18 29 19 29 20 29 21 28 22 29 23 29 24 28 25 28 26 28 27 28 28 16 29 15
282 0.6616087555885315 -1.141584873199463 -0.44867393374443054 0 255 0 0.0 8 128 9 53 10 48 11 46 12 42 13 41 14 37 15 35 16 33 17 31 18 30 19 30 20 30 21 29 22 30 23 30 24 29 25 29 26 29 27 29
283 0.25454339385032654 -1.1778037548065186 -0.25643372535705566 0 255 0 0.0 8 129 9 54 10 49 11 47
284 0.45625007152557373 -1.2001014947891235 -0.4015141725540161 0 255 0 0.0 8 130 9 55 10 50 11 48
285 0.19736045598983765 -1.0187709331512451 -1.0002952814102173 0 255 0 0.0 8 132
286 0.4993106722831726 -1.17377507686615 -0.5196800231933594 0 255 0 0.0 8 133 9 56
287 0.25150349736213684 -1.1657432317733765 -0.35585451126098633 0 255 0 0.0 8 136 9 57 10 51 11 49 12 43 13 42 14 38 15 36 16 34 17 32 18 31 19 31 20 31 21 30 22 31 23 31 24 30 25 30 26 30 27 30 28 17 29 16 30 11 31 1
288 0.293654203414917 -1.190617561340332 -0.44677236676216125 0 255 0 0.0 8 137 9 58
289 0.2585868835449219 -1.171626329421997 -0.3492468595504761 0 255 0 0.0 8 138 9 59 10 52 11 50
290 -0.05086315795779228 -0.5728150606155396 -0.43811559677124023 0 255 0 0.0 8 139
291 -0.026981066912412643 -0.5900591015815735 -0.5882076621055603 0 255 0 0.0 8 140
292 0.18524661660194397 -1.1540757417678833 0.12366866320371628 0 255 0 0.0 8 141
293 0.318253755569458 -1.174842357635498 -0.3041236996650696 0 255 0 0.0 8 142 9 60 10 53 11 51
294 0.20191124081611633 -1.1562501192092896 0.037281423807144165 0 255 0 0.0 8 143
295 0.42872655391693115 -0.8890714645385742 -0.7293602824211121 0 255 0 0.0 8 144
296 0.7010996341705322 -0.9930545687675476 -0.35008907318115234 0 255 0 0.0 8 145
297 0.7323759198188782 -1.0923601388931274 -0.3548263907432556 0 255 0 0.0 8 146
298 0.35021787881851196 -1.1679391860961914 -0.8266193866729736 0 255 0 0.0 8 147
299 0.39190030097961426 -1.162959337234497 -0.5729387402534485 0 255 0 0.0 8 148
300 0.4289610981941223 -1.2170383930206299 -0.6999854445457458 0 255 0 0.0 8 149
301 0.7008846998214722 -0.9803952574729919 -0.32890141010284424 0 255 0 0.0 8 150
302 0.6694156527519226 -0.9003568291664124 -0.3607250452041626 0 255 0 0.0 8 151
303 0.07287994772195816 -1.183505654335022 0.009612798690795898 0 255 0 0.0 8 152 9 61
304 0.11683865636587143 -1.177005410194397 -0.08781774342060089 0 255 0 0.0 8 153
305 0.04094121605157852 -1.152611255645752 0.0890015959739685 0 255 0 0.0 8 154
306 -0.026540234684944153 -0.6319960355758667 -0.7134195566177368 0 255 0 0.0 8 155
307 -0.013352827169001102 -0.5891424417495728 -0.5544689893722534 0 255 0 0.0 8 156
308 -0.020928476005792618 -0.6287818551063538 -0.6791147589683533 0 255 0 0.0 8 157
309 0.036520928144454956 -1.160322904586792 -0.7387097477912903 0 255 0 0.0 8 158
310 -0.07038484513759613 -0.5915868282318115 -0.4813815951347351 0 255 0 0.0 8 159
311 0.023417990654706955 -1.1393579244613647 -0.6770433783531189 0 255 0 0.0 8 160
312 -0.02802111953496933 -0.5979907512664795 -0.5803250670433044 0 255 0 0.0 8 161
313 0.28388720750808716 -1.160946249961853 -0.13834333419799805 0 255 0 0.0 8 162 9 62 10 54 11 52
314 0.4275718629360199 -1.1728847026824951 -0.2147284895181656 0 255 0 0.0 8 163
315 0.15440967679023743 -1.1401994228363037 0.08895465731620789 0 255 0 0.0 8 164
316 0.22205513715744019 -1.1251343488693237 0.10172341763973236 0 255 0 0.0 8 165
317 0.1696244776248932 -1.1600768566131592 -0.023960143327713013 0 255 0 0.0 8 166 9 63 10 55 11 53 12 44 13 43 14 39 15 37 16 35 17 33 18 32 19 32 20 32 21 31 22 32 23 32 24 31 25 31 26 31 27 31
318 0.17878001928329468 -0.8210121989250183 -0.9891277551651001 0 255 0 0.0 8 167
319 0.32760143280029297 -0.9585891962051392 -1.001591682434082 0 255 0 0.0 8 168
320 0.10845962166786194 -1.167443037033081 -0.024895906448364258 0 255 0 0.0 8 169 9 64
321 0.11864195019006729 -1.1990084648132324 -0.1452181339263916 0 255 0 0.0 8 170 9 65 10 56
322 -0.2716180384159088 -1.1829135417938232 -0.13104142248630524 0 255 0 0.0 8 171
323 -0.2916468381881714 -1.1858471632003784 -0.14247310161590576 0 255 0 0.0 8 172 9 66
324 0.47950950264930725 -1.071290373802185 -0.8443731069564819 0 255 0 0.0 8 173
325 0.5807785987854004 -0.9394065737724304 -0.46865689754486084 0 255 0 0.0 8 174
326 0.42933389544487 -1.1063861846923828 -0.7290617823600769 0 255 0 0.0 8 175
327 0.42178598046302795 -1.1902873516082764 -0.7537803649902344 0 255 0 0.0 8 176
328 0.3933488428592682 -1.1753665208816528 -0.6996538639068604 0 255 0 0.0 8 177
329 0.4432357847690582 -1.2149261236190796 -0.8015885353088379 0 255 0 0.0 8 178
330 0.47953954339027405 -1.1733704805374146 -0.8909192085266113 0 255 0 0.0 8 179
331 0.4200392961502075 -1.2089639902114868 -0.7402173280715942 0 255 0 0.0 8 180
332 0.6819566488265991 -0.6781182289123535 -0.3876744508743286 0 255 0 0.0 8 181
333 -0.011213000863790512 -0.5956226587295532 -0.5882384777069092 0 255 0 0.0 8 182
334 -0.05864223837852478 -0.6249473690986633 -0.5606379508972168 0 255 0 0.0 8 183
335 -0.0823482796549797 -0.6140897274017334 -0.499725878238678 0 255 0 0.0 8 184
336 -0.046181850135326385 -0.5926565527915955 -0.529546856880188 0 255 0 0.0 8 185
337 -0.03433668613433838 -0.6191679835319519 -0.724572479724884 0 255 0 0.0 8 186
338 0.23767128586769104 -0.8910818696022034 -0.9695345163345337 0 255 0 0.0 8 187
339 0.2367163598537445 -1.0492602586746216 -0.9828248023986816 0 255 0 0.0 8 188
340 0.7489454746246338 -0.7193621397018433 -0.447157084941864 0 255 0 0.0 8 189
341 0.004230767488479614 -0.6276395916938782 -0.7572510838508606 0 255 0 0.0 8 190
342 0.7018731832504272 -0.8548009395599365 -0.30803239345550537 0 255 0 0.0 8 191
343 -0.03925082087516785 -0.5814222097396851 -0.47505468130111694 0 255 0 0.0 8 192
344 0.28510481119155884 -0.7959752082824707 -0.9016026258468628 0 255 0 0.0 8 193
345 -0.07397682219743729 -0.5668601989746094 -0.43087536096572876 0 255 0 0.0 8 194
346 -0.007401544600725174 -0.5896838307380676 -0.7399176359176636 0 255 0 0.0 8 195
347 -0.04022306203842163 -0.5843995809555054 -0.4937794804573059 0 255 0 0.0 8 196
348 0.1851167380809784 -1.2102813720703125 -1.051604151725769 0 255 0 0.0 8 197
349 -0.007366543635725975 -0.581754207611084 -0.5404245853424072 0 255 0 0.0 8 198
350 0.28122779726982117 -1.195641279220581 -0.9858837127685547 0 255 0 0.0 8 199
351 0.1433110535144806 -1.199405550956726 -1.0166198015213013 0 255 0 0.0 8 200
352 0.14463448524475098 -1.2131577730178833 -1.0391881465911865 0 255 0 0.0 8 201
353 0.22733446955680847 -1.0671980381011963 -0.9754582643508911 0 255 0 0.0 8 202
354 0.36989954113960266 -1.2361407279968262 -0.9587359428405762 0 255 0 0.0 8 203
355 0.22199347615242004 -1.1992210149765015 -0.9668205976486206 0 255 0 0.0 8 204
356 0.10803233832120895 -1.2294386625289917 -1.0758438110351562 0 255 0 0.0 8 205
357 0.20135357975959778 -0.7586995959281921 -1.0198174715042114 0 255 0 0.0 8 206
358 0.2684186100959778 -0.8516254425048828 -0.9798637628555298 0 255 0 0.0 8 207
359 0.3260294198989868 -0.9815482497215271 -1.0031479597091675 0 255 0 0.0 8 208
360 0.22688639163970947 -1.226349949836731 -1.0043082237243652 0 255 0 0.0 8 209
361 0.08703835308551788 -1.2039287090301514 -1.086681842803955 0 255 0 0.0 8 210
362 0.7225062251091003 -1.1552637815475464 -0.45103874802589417 0 255 0 0.0 9 67 10 57 11 54 14 40 15 38 16 36 17 34 18 33 19 33 20 33 21 32 22 33 23 33 24 32 25 32 26 32 27 32
363 0.06173272430896759 -1.1615318059921265 0.057615384459495544 0 255 0 0.0 9 68
364 0.11642567813396454 -1.1646419763565063 -0.04746955633163452 0 255 0 0.0 9 69 10 58 11 55 12 45
365 0.6359729170799255 -1.2039121389389038 -0.4465431571006775 0 255 0 0.0 9 70 10 59 11 56
366 0.23392586410045624 -1.1865228414535522 -0.36231157183647156 0 255 0 0.0 9 71 10 60 11 57 12 46 13 44 14 41 15 39 16 37
367 0.2152731716632843 -1.19289231300354 -0.23408091068267822 0 255 0 0.0 9 72 10 61 11 58
368 0.09599106013774872 -1.1748226881027222 -0.09747514128684998 0 255 0 0.0 9 73
369 0.639775812625885 -1.2132240533828735 -0.5191618204116821 0 255 0 0.0 9 74 12 47 13 45 14 42 15 40 16 38 17 35 18 34 19 34 20 34 21 33 22 34 23 34 24 33 25 33 26 33 27 33
370 0.23923692107200623 -1.1605020761489868 -0.3697122037410736 0 255 0 0.0 9 75 10 62 11 59 12 48 13 46 14 43 15 41 16 39 17 36 18 35 19 35 20 35 21 34 22 35 23 35 24 34 25 34 26 34 27 34
371 0.19850888848304749 -1.1672898530960083 0.06645023822784424 0 255 0 0.0 9 76 10 63 11 60 12 49
372 0.13145993649959564 -1.159637212753296 0.04572951793670654 0 255 0 0.0 9 77
373 0.32744306325912476 -1.1916195154190063 -0.265656977891922 0 255 0 0.0 9 78
374 0.13107477128505707 -1.1709091663360596 0.0670490562915802 0 255 0 0.0 9 79 10 64 11 61
375 0.41604575514793396 -1.2106378078460693 -0.1906386911869049 0 255 0 0.0 9 80 10 65 11 62
376 0.33999955654144287 -1.1632397174835205 -0.06322753429412842 0 255 0 0.0 9 81
377 0.20628604292869568 -1.194295883178711 -0.16125035285949707 0 255 0 0.0 9 82 10 66 11 63 12 50 13 47 14 44 15 42 16 40 17 37 18 36 19 36 20 36 21 35 22 36 23 36 24 35 25 35 26 35 27 35
378 0.2849288284778595 -1.1820435523986816 -0.45913854241371155 0 255 0 0.0 10 67 11 64 12 51 13 48 14 45 15 43 16 41 17 38 18 37
379 0.40382474660873413 -1.1733582019805908 -0.392103910446167 0 255 0 0.0 10 68 11 65
380 0.13513785600662231 -1.1571720838546753 -0.10751485824584961 0 255 0 0.0 10 69 11 67 12 53 13 50 14 47 15 44 16 42 17 39 18 38 19 37 20 37 21 36 22 37 23 37 24 36 25 36 26 36 27 36
381 0.08345479518175125 -1.1794641017913818 0.00018459558486938477 0 255 0 0.0 10 70 11 68
382 0.01751437596976757 -1.1607543230056763 0.14085403084754944 0 255 0 0.0 10 71 11 69
383 0.0051552653312683105 -1.1662352085113525 0.15023989975452423 0 255 0 0.0 10 72 11 70 12 54 13 51 14 48 15 45 16 43 17 40 18 39 19 38 20 38 21 37 22 38 23 38 24 37 25 37 26 37 27 37
384 0.12323001027107239 -1.1458066701889038 -0.06369569897651672 0 255 0 0.0 10 73 11 71
385 0.03728894889354706 -1.1826128959655762 0.13751496374607086 0 255 0 0.0 10 74 11 72
386 0.08899998664855957 -1.1724884510040283 0.03880047798156738 0 255 0 0.0 10 75 11 73 12 55
387 -0.0010020844638347626 -1.1740010976791382 0.10752610862255096 0 255 0 0.0 10 76 11 74 12 56
388 0.17615275084972382 -1.157684087753296 0.0837487280368805 0 255 0 0.0 10 77 13 52
389 0.12117153406143188 -1.1759059429168701 -0.019749462604522705 0 255 0 0.0 10 78 11 75
390 0.4876530170440674 -1.1887025833129883 -0.47796788811683655 0 255 0 0.0 10 79
391 0.3954174518585205 -1.2055506706237793 -0.4868631064891815 0 255 0 0.0 10 80
392 -0.009013211354613304 -1.1387159824371338 0.14829829335212708 0 255 0 0.0 10 81
393 0.1696457862854004 -1.1773000955581665 0.0786389410495758 0 255 0 0.0 10 82 11 76 12 57 13 53 14 49
394 0.5080781579017639 -1.2023742198944092 -0.5647367238998413 0 255 0 0.0 11 66 12 52 13 49 14 46
395 0.5618789792060852 -0.9659203886985779 -0.47098976373672485 0 255 0 0.0 11 77
396 0.6109848618507385 -1.011344075202942 -0.5308045148849487 0 255 0 0.0 11 78 14 50 15 46 16 44 17 41 18 40 19 39 20 39 21 38 22 39 23 39 24 38 25 38
397 0.6751341819763184 -1.1538314819335938 -0.4214511215686798 0 255 0 0.0 27 38
398 0.25027549266815186 -1.1842050552368164 -0.2240944504737854 0 255 0 0.0 28 18 29 17
399 0.2160419225692749 -1.1470105648040771 -0.3424341678619385 0 255 0 0.0 28 19 29 18 30 12 31 2
400 0.05961091071367264 -1.1822261810302734 -1.0250190496444702 0 255 0 0.0 28 20 29 20 30 16 31 7 32 3 33 2 34 2 35 0 36 0 37 0
401 -0.05424891412258148 -0.5683419704437256 -0.43450212478637695 0 255 0 0.0 28 21 29 21
402 0.29533934593200684 -1.0696918964385986 -0.8975264430046082 0 255 0 0.0 28 22 29 22 30 17 31 8 32 4 33 3 34 3 35 1 36 1 37 1 38 0 39 0 40 0 41 0
403 0.2915804386138916 -1.041448950767517 -0.9000581502914429 0 255 0 0.0 28 23 29 28 30 22 31 13 32 9 33 7 34 7 35 5 36 5 37 5 38 4 39 4 40 2 41 2
404 0.28234702348709106 -1.026465654373169 -0.9218218326568604 0 255 0 0.0 28 24 29 29 30 23 31 14 32 10 33 8 34 8 35 6 36 6 37 6 38 5
405 0.13913165032863617 -1.149410367012024 -0.9458964467048645 0 255 0 0.0 28 25
406 0.26175713539123535 -1.0920090675354004 -0.8835086226463318 0 255 0 0.0 28 26 29 31 30 25 31 16 32 12 33 10 34 10 35 8 36 8 37 8 38 7 39 6 40 4
407 0.3555666208267212 -1.1247354745864868 -0.5667713284492493 0 255 0 0.0 29 19 30 13 31 3 32 0 33 0 34 0
408 0.32476696372032166 -1.131422758102417 -0.8892648220062256 0 255 0 0.0 29 23 30 19 31 10 32 6 33 4 34 4 35 2 36 2 37 2 38 1 39 1
409 0.3157406449317932 -1.1489155292510986 -0.8974199891090393 0 255 0 0.0 29 24 30 20 31 11 32 7 33 5 34 5 35 3 36 3 37 3 38 2 39 2 40 1 41 1
410 0.2963084578514099 -1.125019907951355 -0.886763870716095 0 255 0 0.0 29 25 30 21 31 12 32 8 33 6 34 6 35 4 36 4 37 4 38 3 39 3
411 0.40893763303756714 -1.2266144752502441 -0.668863832950592 0 255 0 0.0 29 26
412 0.3991971015930176 -1.1873996257781982 -0.6976470351219177 0 255 0 0.0 29 27
413 0.3726692795753479 -1.1629050970077515 -0.8768293261528015 0 255 0 0.0 29 30 30 24 31 15 32 11 33 9 34 9 35 7 36 7 37 7 38 6 39 5 40 3
414 0.37128400802612305 -1.1643362045288086 -0.5746015310287476 0 255 0 0.0 30 14 31 4 32 1 33 1 34 1
415 0.3817169964313507 -1.1888532638549805 -0.5777271389961243 0 255 0 0.0 30 15 31 5 32 2
416 0.04404434561729431 -1.1227531433105469 -0.6742727756500244 0 255 0 0.0 30 18 31 9 32 5
417 -0.05564320832490921 -1.1124688386917114 -0.4181382656097412 0 255 0 0.0 31 6
418 0.3386652171611786 -1.149947166442871 -0.5201433300971985 0 255 0 0.0 31 17 32 13
419 0.056807175278663635 -1.0106799602508545 -1.0328198671340942 0 255 0 0.0 31 18 32 14 34 11 35 9 36 9 37 9
420 0.07818510383367538 -1.0238473415374756 -1.0411927700042725 0 255 0 0.0 31 19 32 15 33 11 34 12 35 10 36 10 37 10
421 0.3527480959892273 -1.103637456893921 -0.5627094507217407 0 255 0 0.0 31 20 32 20
422 0.03903622925281525 -1.1496247053146362 -0.6876170039176941 0 255 0 0.0 31 21 32 23 33 16 34 16
423 -0.14911578595638275 -0.557578444480896 -0.24094194173812866 0 255 0 0.0 31 22
424 -0.1430472582578659 -0.5579797625541687 -0.2676684856414795 0 255 0 0.0 31 23
425 -0.13628293573856354 -0.5630893111228943 -0.2976575493812561 0 255 0 0.0 31 24 32 32
426 -0.11748021095991135 -0.5594077110290527 -0.3131873905658722 0 255 0 0.0 31 25 32 33 33 22
427 0.06605535000562668 -1.0211877822875977 -1.024643898010254 0 255 0 0.0 31 26 32 34 34 18 35 15 36 16 37 16 42 0
428 -0.1097383126616478 -0.5615689754486084 -0.36997655034065247 0 255 0 0.0 31 27 32 35 33 23
429 0.054771021008491516 -1.0598866939544678 -0.6414490342140198 0 255 0 0.0 31 28
430 -0.10035793483257294 -0.5993464589118958 -0.4202454090118408 0 255 0 0.0 31 29 32 36
431 -0.04993433877825737 -0.5807386636734009 -0.48841696977615356 0 255 0 0.0 31 30 32 37 33 24 34 19 35 16 36 17 37 17 38 11 39 9
432 -0.07359485328197479 -0.5690135359764099 -0.4348008632659912 0 255 0 0.0 31 31 32 38
433 -0.16978615522384644 -0.564509391784668 -0.1889316737651825 0 255 0 0.0 31 32
434 0.1846589893102646 -0.9131097793579102 -0.9770206212997437 0 255 0 0.0 31 33 32 39 33 25 34 20 35 17 36 18 37 18 38 12 39 10 40 6 41 4 42 1
435 -0.13369205594062805 -0.5644789934158325 -0.3273465037345886 0 255 0 0.0 31 34 32 40
436 0.30109503865242004 -0.6828477382659912 -0.8927260637283325 0 255 0 0.0 31 35 32 41 33 26 36 19 37 19 38 13
437 0.29884403944015503 -0.7938079833984375 -0.8701544404029846 0 255 0 0.0 31 36 32 42 33 27 34 21 35 18 36 20 37 20 38 14 39 11 40 7
438 0.27882087230682373 -0.8649914860725403 -0.9065783023834229 0 255 0 0.0 31 37 32 43 33 28 34 22 35 19 36 21 37 21 38 15
439 0.30338144302368164 -0.852979838848114 -0.9145833849906921 0 255 0 0.0 31 38
440 0.28686457872390747 -0.7686425447463989 -0.8973895907402039 0 255 0 0.0 31 39 34 24 35 21 36 23 37 23 38 17 40 9
441 0.33161118626594543 -0.8380336165428162 -0.9179625511169434 0 255 0 0.0 31 40 32 45 33 30 34 25 35 22 36 24 37 24
442 0.2734867036342621 -0.6604883670806885 -0.8795759081840515 0 255 0 0.0 31 41
443 0.23518966138362885 -0.5598421096801758 -0.7973836064338684 0 255 0 0.0 31 42 32 48 33 31 34 26 35 23 36 25 37 25 38 18 39 13 40 10
444 0.1596294790506363 -0.8431168794631958 -0.9744579195976257 0 255 0 0.0 31 43 32 49 33 32 34 27 35 24
445 0.03225484490394592 -0.5332164764404297 -0.9167584180831909 0 255 0 0.0 31 44 32 50 33 33 34 28 35 25 36 26 37 26 43 0
446 0.053885310888290405 -0.9036357402801514 -1.0755903720855713 0 255 0 0.0 31 45 32 51 33 34 34 29
447 0.16414691507816315 -0.8569930195808411 -0.9906278848648071 0 255 0 0.0 31 46 32 52 33 35 34 30 35 26 36 27 37 27 38 19
448 0.004192126914858818 -0.856609046459198 -1.0778535604476929 0 255 0 0.0 31 47 32 53 35 27 36 28 37 28
449 -0.011373357847332954 -0.6122581958770752 -0.6929242014884949 0 255 0 0.0 31 48 32 55 33 36 34 32 35 29
450 0.012875201180577278 -0.5858718156814575 -0.5903095602989197 0 255 0 0.0 31 49
451 0.16826701164245605 -0.9912148118019104 -0.978589653968811 0 255 0 0.0 31 50 32 57 33 38 34 34 35 31 36 31 37 31
452 0.02387584187090397 -0.8274480700492859 -1.0616071224212646 0 255 0 0.0 31 51 35 32 36 32 37 32
453 0.060986921191215515 -0.9352344274520874 -1.0264461040496826 0 255 0 0.0 31 52
454 0.14557617902755737 -1.0002899169921875 -1.0067775249481201 0 255 0 0.0 31 53
455 0.11223091185092926 -0.88205885887146 -1.0234746932983398 0 255 0 0.0 31 54 32 62 33 40 34 36 35 34 36 34 37 34 38 20 39 14 40 11 41 5 42 2 43 1
456 0.27802321314811707 -0.879669189453125 -0.922562301158905 0 255 0 0.0 31 55 32 63 33 41 34 37 35 35
457 0.09295415878295898 -0.9627804756164551 -1.0630093812942505 0 255 0 0.0 31 56 32 64 33 42 34 38 35 36 36 35 37 35 38 21 39 15 40 12
458 0.26880043745040894 -0.6839135885238647 -0.8411431312561035 0 255 0 0.0 31 57 32 69 33 45 34 41 35 39 36 37 37 37 38 22 39 16 40 13
459 0.3311256766319275 -0.9900245070457458 -1.0058882236480713 0 255 0 0.0 31 58 32 71 33 47 34 43 35 41 36 39 37 38 38 24
460 -0.24196304380893707 -0.8430317640304565 -0.7427493929862976 0 255 0 0.0 31 59
461 0.35505253076553345 -1.045224666595459 -1.0506938695907593 0 255 0 0.0 31 60 32 72 33 48 34 44 35 42 36 40 37 39
462 0.2363840490579605 -0.8653492331504822 -0.9592312574386597 0 255 0 0.0 31 61 32 73 33 49 34 45 35 43 36 41 37 40
463 -0.22090213000774384 -0.8628156185150146 -0.7531003355979919 0 255 0 0.0 31 62
464 0.18005363643169403 -0.5427820086479187 -0.8269922733306885 0 255 0 0.0 31 63 32 75 33 50 34 46 35 44 36 42 37 41 38 25
465 0.18875204026699066 -1.0171420574188232 -1.032792091369629 0 255 0 0.0 31 64 32 76
466 0.27384641766548157 -0.9398611783981323 -0.9307708144187927 0 255 0 0.0 31 65 32 77 33 51 34 47 35 45
467 -0.021106671541929245 -0.5262531042098999 -0.7329967617988586 0 255 0 0.0 31 66
468 0.2998396158218384 -0.3631601333618164 -0.9145354628562927 0 255 0 0.0 31 67 32 140 33 101 34 93 35 89 36 75 37 77 38 53 39 35
469 0.392874151468277 -0.37758296728134155 -1.1483126878738403 0 255 0 0.0 31 68 32 141 33 102 34 94 35 90 36 76 37 78 38 54
470 0.3800610601902008 -0.34152403473854065 -1.0491983890533447 0 255 0 0.0 31 69
471 0.3037983775138855 -0.3838188648223877 -0.9000576734542847 0 255 0 0.0 31 70 32 142 33 103 34 95 35 91 36 77 37 79 38 55
472 0.3122444152832031 -0.439383327960968 -0.9246141910552979 0 255 0 0.0 31 71 32 143 33 104 34 96 36 78 37 80 38 56
473 0.30326253175735474 -0.37399792671203613 -0.8961586952209473 0 255 0 0.0 31 72 32 144 33 105 34 97 35 92 36 79 37 81 38 57
474 0.4665784239768982 -0.3383336365222931 -1.1828174591064453 0 255 0 0.0 31 73
475 0.3525785505771637 -0.3572533428668976 -1.0760350227355957 0 255 0 0.0 31 74
476 0.2373860776424408 -0.5224013328552246 -0.9529168009757996 0 255 0 0.0 31 75 32 145 33 106 34 98 35 93
477 0.4468231201171875 -0.3510720133781433 -1.1347038745880127 0 255 0 0.0 31 76 32 146 33 107 34 99 35 94 36 80 37 82 38 58
478 0.6214541792869568 -0.39890599250793457 -1.177803874015808 0 255 0 0.0 31 77 32 147 33 108 35 95 36 81 37 83
479 0.45594552159309387 -0.3778892755508423 -1.1378729343414307 0 255 0 0.0 31 78 32 148 33 109 34 100 35 96 36 82 37 84
480 0.3712228536605835 -0.3292073607444763 -1.159784197807312 0 255 0 0.0 31 79 32 149 33 110 34 101 35 97 36 83 37 85 38 59 39 36
481 0.3247378170490265 -0.3750416040420532 -0.9087998867034912 0 255 0 0.0 31 80 32 150 33 111 34 102 35 98 36 84 37 86
482 0.2910616099834442 -0.6225324273109436 -0.8765639662742615 0 255 0 0.0 31 81
483 0.44217413663864136 -0.3983589708805084 -1.0153486728668213 0 255 0 0.0 31 82 32 151 33 112 34 103 35 99
484 0.140282541513443 -1.1565545797348022 -0.9678347110748291 0 255 0 0.0 31 83 32 152 33 113 34 104 35 100 36 85 37 87 38 60 39 37 40 23 41 12 42 7
485 0.17555318772792816 -1.144087791442871 -0.9763344526290894 0 255 0 0.0 31 84 32 153 33 114 34 105 35 101 36 86 37 88 38 61
486 0.09599492698907852 -1.1648280620574951 -1.065429449081421 0 255 0 0.0 31 85
487 0.3670705258846283 -0.311212956905365 -1.2259286642074585 0 255 0 0.0 31 86 32 154 33 115 34 106 35 102 36 87 37 89 38 62 39 38
488 0.05381465703248978 -0.2413400113582611 -1.4049577713012695 0 255 0 0.0 31 87 32 155 33 116 34 107 35 103 36 88 37 90 38 63 39 39 40 24 41 13 42 8
489 -0.12343847751617432 -0.3349737524986267 -1.4429805278778076 0 255 0 0.0 31 88 32 156 33 117 34 108 35 104 36 89 37 91 38 64 39 40 40 25 41 14 42 9 43 5
490 0.18352249264717102 -0.358473002910614 -1.0160399675369263 0 255 0 0.0 31 89 32 158 33 118 34 110 35 106 36 91 37 93 38 66 39 42
491 0.1109112948179245 -0.3609820604324341 -1.0380343198776245 0 255 0 0.0 31 90 32 159 33 119 34 111 35 107 36 92 37 94 38 67
492 0.22537218034267426 -0.32134175300598145 -1.2087337970733643 0 255 0 0.0 31 91 32 160 33 120 34 112
493 0.09729837626218796 -0.34802472591400146 -1.0262246131896973 0 255 0 0.0 31 92 32 161 34 113 35 108 36 93 37 95 38 68 39 43 40 27 41 16
494 -0.067247174680233 -0.1988954246044159 -1.4271091222763062 0 255 0 0.0 31 93 32 162 33 121 34 114 35 109 36 94 37 96 38 69 39 44 40 28 41 17
495 -0.01043114997446537 -0.38114839792251587 -1.1879724264144897 0 255 0 0.0 31 94 32 163
496 -0.04171989858150482 -0.37982451915740967 -1.3851773738861084 0 255 0 0.0 31 95 32 164 33 122 34 115 35 110 36 95 37 97 38 70 39 45 40 29 41 18 42 11 43 7
497 -0.10167282819747925 -0.38169658184051514 -1.2892612218856812 0 255 0 0.0 31 96 32 165 33 123 34 116 35 111 36 96 37 98 38 71 39 46 40 30 41 19 42 12 43 8
498 0.07255939394235611 -0.3774169683456421 -1.2745397090911865 0 255 0 0.0 31 97 32 166 33 124 34 117 35 112 36 97 37 99 38 72 39 47
499 -0.1469506323337555 -0.2961551547050476 -1.550302267074585 0 255 0 0.0 31 98 32 167 33 125 34 118 35 113 36 98 37 100
500 0.1741822063922882 -0.3586839437484741 -0.9957422018051147 0 255 0 0.0 31 99 32 168 33 126 34 119 35 114 36 99 37 101
501 -0.06228434294462204 -0.3827955722808838 -1.354956865310669 0 255 0 0.0 31 100 32 169 33 127 34 120 35 115 36 100 37 102 38 73 39 48 40 31 41 20 42 13 43 9
502 0.2072637379169464 -0.3117673397064209 -1.1839951276779175 0 255 0 0.0 31 101 32 170 33 128 34 121 35 116 36 101 37 103 38 74 39 49 40 32 41 21
503 0.11027656495571136 -0.34829431772232056 -1.0879327058792114 0 255 0 0.0 31 102 32 171 33 129 34 122 35 117 36 102 37 104 38 75 42 14
504 0.07545054703950882 -0.3756983280181885 -1.2475835084915161 0 255 0 0.0 31 103 32 172 33 130 34 123 35 118 36 103 37 105 38 76 39 50 40 33 41 22
505 0.10125256329774857 -0.37648290395736694 -1.1799938678741455 0 255 0 0.0 31 104
506 -0.16042375564575195 -0.3469046354293823 -1.5835460424423218 0 255 0 0.0 31 105 32 173 33 131 34 124 35 119 36 104 37 106 38 77 39 51 40 34 41 23 42 15 43 10
507 0.08283340185880661 -0.36387085914611816 -1.1796813011169434 0 255 0 0.0 31 106 32 174 33 132 34 125 35 120 36 105 37 107 38 78 39 52 40 35 41 24 42 16
508 0.12922801077365875 -0.3181743621826172 -0.9940967559814453 0 255 0 0.0 31 107 34 126 35 121 36 106 37 108 38 79
509 -0.1872197538614273 -0.3730086088180542 -1.8345320224761963 0 255 0 0.0 31 108
510 0.09996115416288376 -0.37705838680267334 -1.2218886613845825 0 255 0 0.0 31 109 32 176 33 134 34 128 35 123 36 108 37 110 38 81 39 54
511 0.0897451788187027 -0.38401150703430176 -1.3268330097198486 0 255 0 0.0 31 110 32 177 33 135 34 129 35 124 36 109 37 111 38 82
512 0.013643497601151466 -0.3747042417526245 -1.1491682529449463 0 255 0 0.0 31 111
513 -0.10924135893583298 -0.19507107138633728 -1.547268033027649 0 255 0 0.0 31 112 32 178 33 136 34 130 35 125 36 110 37 112 38 83 39 55 40 37 41 26 42 17
514 0.27913445234298706 -0.381370484828949 -1.3352400064468384 0 255 0 0.0 31 113 32 179 33 137
515 0.14817631244659424 -0.3004443049430847 -1.376328945159912 0 255 0 0.0 31 114 32 180
516 -0.004829134792089462 -0.3847501277923584 -1.3799700736999512 0 255 0 0.0 31 115 32 181 33 138 34 131 35 126 36 111 37 113 38 84 39 56 40 38 41 27 42 18
517 0.23182179033756256 -0.3314211070537567 -1.1278505325317383 0 255 0 0.0 31 116
518 0.046692535281181335 -1.2213882207870483 -1.0571385622024536 0 255 0 0.0 31 117 32 182
519 0.45619291067123413 -0.5867759585380554 -0.9966285824775696 0 255 0 0.0 31 118
520 0.14102515578269958 -0.34142571687698364 -1.0654993057250977 0 255 0 0.0 31 119
521 0.034993819892406464 -1.0991166830062866 -1.1254680156707764 0 255 0 0.0 31 120 32 184
522 -0.14553479850292206 -0.24782460927963257 -1.500318169593811 0 255 0 0.0 31 121 32 185 33 140 34 133 35 128
523 0.21049079298973083 -0.322207510471344 -1.0207798480987549 0 255 0 0.0 31 122 32 187 33 142 34 135 35 130 36 112 37 114 38 85 39 57 40 39
524 0.14287014305591583 -1.1875072717666626 -1.010413646697998 0 255 0 0.0 31 123
525 0.2530289888381958 -0.33793479204177856 -1.2144525051116943 0 255 0 0.0 31 124 32 188 33 143 34 136 35 131 36 113 37 115 38 86
526 0.43392011523246765 -0.39863166213035583 -1.0170637369155884 0 255 0 0.0 31 125 32 189 33 144 34 137 35 132
527 0.394955039024353 -0.4015953540802002 -0.9181424975395203 0 255 0 0.0 31 126
528 0.06300244480371475 -0.2964465022087097 -1.391264796257019 0 255 0 0.0 31 127 32 190 33 146 34 138
529 -0.1201331615447998 -0.38220369815826416 -1.3096109628677368 0 255 0 0.0 31 128 32 191 33 147 34 139 35 133 36 114 37 116 38 87 39 58 40 40 41 28 42 19 43 11 44 1
530 0.14492686092853546 -0.2713191509246826 -1.3684306144714355 0 255 0 0.0 31 129 32 192 33 148 34 140 35 134 36 115 37 117 38 88 39 59 40 41 41 29
531 0.0662485808134079 -0.2758917808532715 -1.3964258432388306 0 255 0 0.0 31 130 32 193 33 149 34 141 35 135 36 116 37 118 38 89 39 60 40 42
532 0.07674265652894974 -0.31266236305236816 -1.4110552072525024 0 255 0 0.0 31 131 32 194 33 150 34 142 35 136 36 117 37 119 38 90 39 61 40 43 41 30 42 20
533 0.21624824404716492 -0.2955624461174011 -1.2229129076004028 0 255 0 0.0 31 132 32 195 33 151 34 143 35 137 36 118 37 120 38 91 39 62
534 0.10725641250610352 -0.26118552684783936 -1.2946345806121826 0 255 0 0.0 31 133 34 144 35 138 36 119 37 121 38 92
535 -0.10133765637874603 -0.3779870271682739 -1.1451804637908936 0 255 0 0.0 31 134 32 196
536 -0.08513155579566956 -0.20229016244411469 -1.621894359588623 0 255 0 0.0 31 135 32 197
537 0.005974659696221352 -0.28640350699424744 -1.4980040788650513 0 255 0 0.0 31 136 32 198 33 152 34 145 35 139 36 120
538 -0.07836868613958359 -0.20726841688156128 -1.422741174697876 0 255 0 0.0 31 137
539 0.11337965726852417 -0.2517809569835663 -1.3460965156555176 0 255 0 0.0 31 138 32 199 33 153 34 146
540 0.02058551274240017 -0.7316048741340637 -1.0417468547821045 0 255 0 0.0 31 139 32 201
541 -0.12282581627368927 -0.4327562749385834 -0.9513147473335266 0 255 0 0.0 31 140
542 0.1784118413925171 -0.27657613158226013 -1.315143346786499 0 255 0 0.0 31 141
543 -0.23598529398441315 -0.8739592432975769 -0.7548772692680359 0 255 0 0.0 31 142
544 0.35022398829460144 -0.3326874375343323 -1.3377795219421387 0 255 0 0.0 31 143 32 202 33 155 34 148 35 141 36 122 37 123
545 0.008690038695931435 -0.29807496070861816 -1.5762513875961304 0 255 0 0.0 31 144 32 203
546 0.4308260977268219 -0.6596256494522095 -1.1304625272750854 0 255 0 0.0 31 145 33 156 35 142
547 -0.3220892548561096 -0.8567240834236145 -0.7938825488090515 0 255 0 0.0 31 146
548 0.3049120306968689 -0.3577824831008911 -1.3855077028274536 0 255 0 0.0 31 147 32 204
549 0.29685187339782715 -0.34974032640457153 -0.921126663684845 0 255 0 0.0 31 148 32 206 33 157 34 149
550 0.1671992391347885 -0.3004857897758484 -1.097464680671692 0 255 0 0.0 31 149 32 207 33 158 34 150 35 143 36 123 37 124 38 93 39 63
551 0.19381119310855865 -0.31165647506713867 -1.134373664855957 0 255 0 0.0 31 150 32 208 33 159 34 151 35 144 36 124 37 125 39 64 40 44 41 31
552 0.1676197350025177 -0.3095055818557739 -1.0537896156311035 0 255 0 0.0 31 151 32 209 33 160
553 0.15678083896636963 -0.2985013723373413 -1.0394293069839478 0 255 0 0.0 31 152 32 210 33 161 34 152 35 145 36 125 37 126 38 94 39 65 40 45 41 32
554 0.13104797899723053 -0.313607782125473 -1.0362253189086914 0 255 0 0.0 31 153 35 146 36 126 37 127 38 95 39 66 40 46 41 33
555 0.00827079825103283 -0.37619084119796753 -1.337213397026062 0 255 0 0.0 31 154 32 211 33 162 34 153 35 147 36 127 37 128 38 96 39 67 40 47 41 34 42 21
556 0.015637749806046486 -0.3815425634384155 -1.3625470399856567 0 255 0 0.0 31 155 32 212 33 163 34 154 35 148 36 128 37 129 38 97 39 68
557 0.08134356141090393 -0.3815048933029175 -1.1498997211456299 0 255 0 0.0 31 156 32 213 33 164 34 155 35 149 36 129 37 130 38 98 39 69 40 48
558 -0.16791366040706635 -0.3451799154281616 -1.4655907154083252 0 255 0 0.0 31 157 32 214 33 165 34 156 35 150 36 130 37 131 38 99 39 70 40 49 41 35 42 22 43 12 44 2
559 0.19002392888069153 -0.3126975893974304 -1.0337681770324707 0 255 0 0.0 31 158 32 215 33 166 34 157 35 151 36 131 37 132
560 0.11378422379493713 -0.2925393581390381 -1.0314459800720215 0 255 0 0.0 31 159 32 216 33 167 34 158 35 152 36 132 37 133 38 100 39 71 40 50 41 36 42 23
561 0.04279337823390961 -0.3989935517311096 -1.4802842140197754 0 255 0 0.0 31 160
562 0.19637534022331238 -0.290643572807312 -1.0430073738098145 0 255 0 0.0 31 161 32 217 33 168 34 159 35 153 36 133 37 134 38 101 39 72 40 51
563 0.10980813950300217 -0.347735196352005 -1.5329816341400146 0 255 0 0.0 31 162
564 0.1753709614276886 -0.3176428973674774 -1.0199145078659058 0 255 0 0.0 31 163 32 218 33 169 34 160 35 154
565 0.48058849573135376 -0.5153020620346069 -1.2335782051086426 0 255 0 0.0 31 164
566 0.039464518427848816 -0.3702036440372467 -1.0257360935211182 0 255 0 0.0 31 165 32 219 33 170 34 161 35 155 36 134
567 0.2268102765083313 -0.25044623017311096 -1.2092310190200806 0 255 0 0.0 31 166 32 220 33 172 34 163 35 156
568 0.3547067642211914 -1.1780046224594116 -0.8212332725524902 0 255 0 0.0 32 16 33 12 34 13 35 11 36 11 37 11 38 8 39 7 40 5 41 3
569 0.052896417677402496 -1.1644244194030762 -1.067901849746704 0 255 0 0.0 32 17 33 13 34 14 36 12 37 12
570 0.31380122900009155 -1.1917788982391357 -0.47818028926849365 0 255 0 0.0 32 18
571 0.37873607873916626 -1.1707751750946045 -0.6477334499359131 0 255 0 0.0 32 19 33 14 34 15 35 12 36 13 37 13 38 9
572 0.32346588373184204 -1.1614491939544678 -0.5481266379356384 0 255 0 0.0 32 21
573 0.33286502957344055 -1.1554120779037476 -0.5638684034347534 0 255 0 0.0 32 22 33 15
574 0.36214664578437805 -1.145260214805603 -0.3996911644935608 0 255 0 0.0 32 24
575 0.39531826972961426 -1.1750872135162354 -0.5680335760116577 0 255 0 0.0 32 25 33 17
576 0.03625509887933731 -1.1628040075302124 -0.7312183380126953 0 255 0 0.0 32 26 33 18
577 -0.10114188492298126 -0.5624305009841919 -0.33909499645233154 0 255 0 0.0 32 27
578 -0.04283018410205841 -0.5894268155097961 -0.5327616333961487 0 255 0 0.0 32 28 33 19 34 17 35 13 36 14 37 14 38 10 39 8
579 0.05647354573011398 -0.9637569785118103 -1.036139965057373 0 255 0 0.0 32 29 35 14 36 15 37 15
580 0.4353647828102112 -1.183166742324829 -0.5506024360656738 0 255 0 0.0 32 30 33 20
581 -0.0885159820318222 -0.5836870670318604 -0.43579283356666565 0 255 0 0.0 32 31 33 21
582 0.26220613718032837 -0.9848864078521729 -0.8867053985595703 0 255 0 0.0 32 44 33 29 34 23 35 20 36 22 37 22 38 16 39 12 40 8
583 0.2940005958080292 -1.2000586986541748 -0.9295333623886108 0 255 0 0.0 32 46
584 0.2994493246078491 -1.1456300020217896 -0.5002505779266357 0 255 0 0.0 32 47
585 0.0528649240732193 -1.1954092979431152 -1.0562375783920288 0 255 0 0.0 32 54 34 31 35 28 36 29 37 29
586 0.03713586926460266 -1.1766738891601562 -0.8671954870223999 0 255 0 0.0 32 56 33 37 34 33 35 30 36 30 37 30
587 0.03939056396484375 -1.181777000427246 -0.9052097797393799 0 255 0 0.0 32 58 33 39 34 35 35 33 36 33 37 33
588 -0.12407884746789932 -0.593040943145752 -0.36628448963165283 0 255 0 0.0 32 59
589 -0.161163792014122 -0.5643028616905212 -0.24906790256500244 0 255 0 0.0 32 60
590 -0.15718984603881836 -0.5608027577400208 -0.2751014232635498 0 255 0 0.0 32 61
591 0.136056587100029 -1.1263526678085327 -1.008757472038269 0 255 0 0.0 32 65 33 43 34 39 35 37
592 0.29528501629829407 -1.1755613088607788 -0.4982074499130249 0 255 0 0.0 32 66
593 0.27567997574806213 -1.1841979026794434 -0.9195142984390259 0 255 0 0.0 32 67 33 44 34 40 35 38 36 36 37 36
594 0.21120846271514893 -1.1507898569107056 -0.5559129118919373 0 255 0 0.0 32 68
595 0.4078105688095093 -1.1370608806610107 -0.8481014966964722 0 255 0 0.0 32 70 33 46 34 42 35 40 36 38 38 23
596 0.1517810970544815 -1.1467185020446777 -0.5016722083091736 0 255 0 0.0 32 74
597 0.2691989243030548 -1.1142618656158447 -0.9291956424713135 0 255 0 0.0 32 78 33 52 34 48 35 46 36 43 37 42
598 0.3083055913448334 -0.5282739996910095 -0.9307441711425781 0 255 0 0.0 32 79
599 0.30591481924057007 -0.5011919140815735 -0.9048370122909546 0 255 0 0.0 32 80 33 53 34 49 35 47 36 44 37 43 38 26 39 17
600 0.2603364586830139 -0.6441052556037903 -0.824079155921936 0 255 0 0.0 32 81 33 54 34 50 35 48 36 45 37 44 38 27
601 0.30194199085235596 -0.5302605628967285 -0.8967084884643555 0 255 0 0.0 32 82 33 55 34 51 35 49 36 46 37 45 38 28 39 18
